208930.77	80292.08	67
208915.77	80297.08	67
208925.77	80297.08	67
208921.84	80246.53	67
208906.84	80251.53	67
208916.84	80251.53	67
208926.84	80251.53	67
208911.84	80256.53	67
208921.84	80256.53	67
208906.84	80261.53	67
208916.84	80261.53	67
208926.84	80261.53	67
208911.84	80266.53	67
208921.84	80266.53	67
208906.84	80271.53	67
208916.84	80271.53	67
208944.02	80525.48	67
208929.94	80436.36	67
208914.02	80334.38	67
208895.19	80217.11	67
208882.2	80134.23	67
208585.59	80047.38	67
208579.7	80044.7	67
208591.84	80027.55	67
208585.69	80033.95	67
208578.72	80029.12	67
208576.75	80036.25	67
208584.88	80041.09	67
208566.66	79839.84	67
208620.34	79596.59	67
208625.02	79602.03	67
208635.97	79600.52	67
208631.3	79607.74	67
208642.42	79605.55	67
208638.22	79612.95	67
208647.48	79611.69	67
208650.17	79620.03	67
208658.39	79625.34	67
208793.17	79810.43	67
208788.95	79801.88	67
208784.06	79791.3	67
208780.27	79780.29	67
208785.33	79778.84	67
208789.19	79788.11	67
208793.47	79797.99	67
208727.73	79758.69	67
208737.73	79758.69	67
208747.73	79758.69	67
208732.73	79763.69	67
208742.73	79763.69	67
208717.73	79768.69	67
208727.73	79768.69	67
208737.73	79768.69	67
208747.73	79768.69	67
208712.73	79773.69	67
208722.73	79773.69	67
208732.73	79773.69	67
208742.73	79773.69	67
208707.73	79778.69	67
208717.73	79778.69	67
208727.73	79778.69	67
208737.73	79778.69	67
208747.73	79778.69	67
208757.73	79778.69	67
208767.73	79778.69	67
208712.73	79783.69	67
208722.73	79783.69	67
208732.73	79783.69	67
208742.73	79783.69	67
208752.73	79783.69	67
208762.73	79783.69	67
208772.73	79783.69	67
208707.73	79788.69	67
208717.73	79788.69	67
208727.73	79788.69	67
208737.73	79788.69	67
208747.73	79788.69	67
208757.73	79788.69	67
208767.73	79788.69	67
208777.73	79788.69	67
208702.73	79793.69	67
208712.73	79793.69	67
208722.73	79793.69	67
208732.73	79793.69	67
208742.73	79793.69	67
208752.73	79793.69	67
208762.73	79793.69	67
208772.73	79793.69	67
208707.73	79798.69	67
208717.73	79798.69	67
208727.73	79798.69	67
208737.73	79798.69	67
208747.73	79798.69	67
208757.73	79798.69	67
208767.73	79798.69	67
208777.73	79798.69	67
208702.73	79803.69	67
208712.73	79803.69	67
208722.73	79803.69	67
208732.73	79803.69	67
208742.73	79803.69	67
208752.73	79803.69	67
208762.73	79803.69	67
208772.73	79803.69	67
208782.73	79803.69	67
208697.73	79808.69	67
208707.73	79808.69	67
208717.73	79808.69	67
208727.73	79808.69	67
208737.73	79808.69	67
208747.73	79808.69	67
208757.73	79808.69	67
208767.73	79808.69	67
208777.73	79808.69	67
208787.73	79808.69	67
208702.73	79813.69	67
208712.73	79813.69	67
208722.73	79813.69	67
208732.73	79813.69	67
208742.73	79813.69	67
208752.73	79813.69	67
208762.73	79813.69	67
208772.73	79813.69	67
208782.73	79813.69	67
208697.73	79818.69	67
208707.73	79818.69	67
208717.73	79818.69	67
208727.73	79818.69	67
208737.73	79818.69	67
208747.73	79818.69	67
208757.73	79818.69	67
208767.73	79818.69	67
208777.73	79818.69	67
208787.73	79818.69	67
208702.73	79823.69	67
208712.73	79823.69	67
208722.73	79823.69	67
208732.73	79823.69	67
208742.73	79823.69	67
208752.73	79823.69	67
208762.73	79823.69	67
208697.73	79828.69	67
208707.73	79828.69	67
208717.73	79828.69	67
208727.73	79828.69	67
208737.73	79828.69	67
208747.73	79828.69	67
208757.73	79828.69	67
208702.73	79833.69	67
208712.73	79833.69	67
208722.73	79833.69	67
208732.73	79833.69	67
208742.73	79833.69	67
208752.73	79833.69	67
208697.73	79838.69	67
208707.73	79838.69	67
208717.73	79838.69	67
208727.73	79838.69	67
208737.73	79838.69	67
208747.73	79838.69	67
208757.73	79838.69	67
208702.73	79843.69	67
208712.73	79843.69	67
208722.73	79843.69	67
208732.73	79843.69	67
208742.73	79843.69	67
208752.73	79843.69	67
208707.73	79848.69	67
208717.73	79848.69	67
208727.73	79848.69	67
208737.73	79848.69	67
208747.73	79848.69	67
208757.73	79848.69	67
208702.73	79853.69	67
208712.73	79853.69	67
208722.73	79853.69	67
208732.73	79853.69	67
208742.73	79853.69	67
208752.73	79853.69	67
208707.73	79858.69	67
208717.73	79858.69	67
208727.73	79858.69	67
208737.73	79858.69	67
208747.73	79858.69	67
208757.73	79858.69	67
208702.73	79863.69	67
208712.73	79863.69	67
208722.73	79863.69	67
208732.73	79863.69	67
208742.73	79863.69	67
208752.73	79863.69	67
208762.73	79863.69	67
208707.73	79868.69	67
208717.73	79868.69	67
208727.73	79868.69	67
208737.73	79868.69	67
208747.73	79868.69	67
208757.73	79868.69	67
208712.73	79873.69	67
208722.73	79873.69	67
208732.73	79873.69	67
208742.73	79873.69	67
208752.73	79873.69	67
208762.73	79873.69	67
208707.73	79878.69	67
208717.73	79878.69	67
208727.73	79878.69	67
208737.73	79878.69	67
208747.73	79878.69	67
208757.73	79878.69	67
208787.73	79878.69	67
208712.73	79883.69	67
208722.73	79883.69	67
208732.73	79883.69	67
208742.73	79883.69	67
208752.73	79883.69	67
208762.73	79883.69	67
208792.73	79883.69	67
208707.73	79888.69	67
208717.73	79888.69	67
208727.73	79888.69	67
208737.73	79888.69	67
208747.73	79888.69	67
208757.73	79888.69	67
208787.73	79888.69	67
208797.73	79888.69	67
208712.73	79893.69	67
208722.73	79893.69	67
208732.73	79893.69	67
208742.73	79893.69	67
208752.73	79893.69	67
208762.73	79893.69	67
208792.73	79893.69	67
208717.73	79898.69	67
208727.73	79898.69	67
208737.73	79898.69	67
208747.73	79898.69	67
208757.73	79898.69	67
208767.73	79898.69	67
208777.73	79898.69	67
208787.73	79898.69	67
208797.73	79898.69	67
208712.73	79903.69	67
208722.73	79903.69	67
208732.73	79903.69	67
208742.73	79903.69	67
208752.73	79903.69	67
208762.73	79903.69	67
208772.73	79903.69	67
208782.73	79903.69	67
208792.73	79903.69	67
208802.73	79903.69	67
208717.73	79908.69	67
208727.73	79908.69	67
208737.73	79908.69	67
208747.73	79908.69	67
208757.73	79908.69	67
208767.73	79908.69	67
208777.73	79908.69	67
208787.73	79908.69	67
208797.73	79908.69	67
208712.73	79913.69	67
208722.73	79913.69	67
208732.73	79913.69	67
208742.73	79913.69	67
208752.73	79913.69	67
208762.73	79913.69	67
208772.73	79913.69	67
208782.73	79913.69	67
208792.73	79913.69	67
208802.73	79913.69	67
208717.73	79918.69	67
208727.73	79918.69	67
208737.73	79918.69	67
208747.73	79918.69	67
208757.73	79918.69	67
208767.73	79918.69	67
208777.73	79918.69	67
208787.73	79918.69	67
208797.73	79918.69	67
208807.73	79918.69	67
208712.73	79923.69	67
208722.73	79923.69	67
208732.73	79923.69	67
208742.73	79923.69	67
208752.73	79923.69	67
208762.73	79923.69	67
208772.73	79923.69	67
208782.73	79923.69	67
208792.73	79923.69	67
208802.73	79923.69	67
208812.73	79923.69	67
208717.73	79928.69	67
208727.73	79928.69	67
208737.73	79928.69	67
208747.73	79928.69	67
208757.73	79928.69	67
208767.73	79928.69	67
208777.73	79928.69	67
208787.73	79928.69	67
208797.73	79928.69	67
208807.73	79928.69	67
208712.73	79933.69	67
208722.73	79933.69	67
208732.73	79933.69	67
208742.73	79933.69	67
208752.73	79933.69	67
208762.73	79933.69	67
208772.73	79933.69	67
208782.73	79933.69	67
208792.73	79933.69	67
208802.73	79933.69	67
208812.73	79933.69	67
208717.73	79938.69	67
208727.73	79938.69	67
208737.73	79938.69	67
208747.73	79938.69	67
208757.73	79938.69	67
208767.73	79938.69	67
208777.73	79938.69	67
208787.73	79938.69	67
208797.73	79938.69	67
208807.73	79938.69	67
208722.73	79943.69	67
208732.73	79943.69	67
208742.73	79943.69	67
208752.73	79943.69	67
208762.73	79943.69	67
208772.73	79943.69	67
208782.73	79943.69	67
208792.73	79943.69	67
208802.73	79943.69	67
208717.73	79948.69	67
208727.73	79948.69	67
208737.73	79948.69	67
208747.73	79948.69	67
208757.73	79948.69	67
208767.73	79948.69	67
208777.73	79948.69	67
208787.73	79948.69	67
208797.73	79948.69	67
208722.73	79953.69	67
208732.73	79953.69	67
208742.73	79953.69	67
208752.73	79953.69	67
208762.73	79953.69	67
208772.73	79953.69	67
208782.73	79953.69	67
208792.73	79953.69	67
208802.73	79953.69	67
208727.73	79958.69	67
208737.73	79958.69	67
208747.73	79958.69	67
208757.73	79958.69	67
208767.73	79958.69	67
208777.73	79958.69	67
208787.73	79958.69	67
208797.73	79958.69	67
208722.73	79963.69	67
208732.73	79963.69	67
208742.73	79963.69	67
208752.73	79963.69	67
208762.73	79963.69	67
208772.73	79963.69	67
208782.73	79963.69	67
208792.73	79963.69	67
208727.73	79968.69	67
208737.73	79968.69	67
208747.73	79968.69	67
208757.73	79968.69	67
208767.73	79968.69	67
208777.73	79968.69	67
208787.73	79968.69	67
208797.73	79968.69	67
208732.73	79973.69	67
208742.73	79973.69	67
208752.73	79973.69	67
208762.73	79973.69	67
208772.73	79973.69	67
208782.73	79973.69	67
208792.73	79973.69	67
208737.73	79978.69	67
208747.73	79978.69	67
208757.73	79978.69	67
208767.73	79978.69	67
208777.73	79978.69	67
208787.73	79978.69	67
208797.73	79978.69	67
208742.73	79983.69	67
208752.73	79983.69	67
208762.73	79983.69	67
208772.73	79983.69	67
208782.73	79983.69	67
208792.73	79983.69	67
208747.73	79988.69	67
208757.73	79988.69	67
208767.73	79988.69	67
208777.73	79988.69	67
208787.73	79988.69	67
208797.73	79988.69	67
208752.73	79993.69	67
208762.73	79993.69	67
208772.73	79993.69	67
208782.73	79993.69	67
208792.73	79993.69	67
208757.73	79998.69	67
208767.73	79998.69	67
208787.73	79998.69	67
208797.73	79998.69	67
208792.73	80003.69	67
208578.19	79561.06	67
208573.19	79566.06	67
208578.19	79571.06	67
208573.19	79576.06	67
208583.19	79576.06	67
208578.19	79581.06	67
208588.19	79581.06	67
208573.19	79586.06	67
208583.19	79586.06	67
208578.19	79591.06	67
208588.19	79591.06	67
208573.19	79596.06	67
208583.19	79596.06	67
208593.19	79596.06	67
208578.19	79601.06	67
208588.19	79601.06	67
208573.19	79606.06	67
208583.19	79606.06	67
208593.19	79606.06	67
208578.19	79611.06	67
208588.19	79611.06	67
208598.19	79611.06	67
208573.19	79616.06	67
208583.19	79616.06	67
208593.19	79616.06	67
208603.19	79616.06	67
208568.19	79621.06	67
208578.19	79621.06	67
208588.19	79621.06	67
208598.19	79621.06	67
208608.19	79621.06	67
208573.19	79626.06	67
208583.19	79626.06	67
208593.19	79626.06	67
208603.19	79626.06	67
208613.19	79626.06	67
208568.19	79631.06	67
208578.19	79631.06	67
208588.19	79631.06	67
208598.19	79631.06	67
208608.19	79631.06	67
208618.19	79631.06	67
208573.19	79636.06	67
208583.19	79636.06	67
208593.19	79636.06	67
208603.19	79636.06	67
208613.19	79636.06	67
208623.19	79636.06	67
208633.19	79636.06	67
208568.19	79641.06	67
208578.19	79641.06	67
208588.19	79641.06	67
208598.19	79641.06	67
208608.19	79641.06	67
208618.19	79641.06	67
208628.19	79641.06	67
208638.19	79641.06	67
208573.19	79646.06	67
208583.19	79646.06	67
208593.19	79646.06	67
208603.19	79646.06	67
208613.19	79646.06	67
208623.19	79646.06	67
208633.19	79646.06	67
208643.19	79646.06	67
208568.19	79651.06	67
208578.19	79651.06	67
208588.19	79651.06	67
208598.19	79651.06	67
208608.19	79651.06	67
208618.19	79651.06	67
208628.19	79651.06	67
208638.19	79651.06	67
208648.19	79651.06	67
208573.19	79656.06	67
208583.19	79656.06	67
208593.19	79656.06	67
208603.19	79656.06	67
208613.19	79656.06	67
208623.19	79656.06	67
208633.19	79656.06	67
208643.19	79656.06	67
208653.19	79656.06	67
208568.19	79661.06	67
208578.19	79661.06	67
208588.19	79661.06	67
208598.19	79661.06	67
208608.19	79661.06	67
208618.19	79661.06	67
208628.19	79661.06	67
208638.19	79661.06	67
208648.19	79661.06	67
208573.19	79666.06	67
208583.19	79666.06	67
208593.19	79666.06	67
208603.19	79666.06	67
208613.19	79666.06	67
208623.19	79666.06	67
208633.19	79666.06	67
208643.19	79666.06	67
208653.19	79666.06	67
208568.19	79671.06	67
208578.19	79671.06	67
208588.19	79671.06	67
208598.19	79671.06	67
208608.19	79671.06	67
208618.19	79671.06	67
208628.19	79671.06	67
208638.19	79671.06	67
208648.19	79671.06	67
208573.19	79676.06	67
208583.19	79676.06	67
208593.19	79676.06	67
208603.19	79676.06	67
208613.19	79676.06	67
208623.19	79676.06	67
208633.19	79676.06	67
208643.19	79676.06	67
208653.19	79676.06	67
208568.19	79681.06	67
208578.19	79681.06	67
208588.19	79681.06	67
208598.19	79681.06	67
208608.19	79681.06	67
208618.19	79681.06	67
208628.19	79681.06	67
208638.19	79681.06	67
208648.19	79681.06	67
208573.19	79686.06	67
208583.19	79686.06	67
208593.19	79686.06	67
208603.19	79686.06	67
208613.19	79686.06	67
208623.19	79686.06	67
208633.19	79686.06	67
208643.19	79686.06	67
208653.19	79686.06	67
208568.19	79691.06	67
208578.19	79691.06	67
208588.19	79691.06	67
208598.19	79691.06	67
208608.19	79691.06	67
208618.19	79691.06	67
208628.19	79691.06	67
208638.19	79691.06	67
208648.19	79691.06	67
208563.19	79696.06	67
208573.19	79696.06	67
208583.19	79696.06	67
208593.19	79696.06	67
208603.19	79696.06	67
208613.19	79696.06	67
208623.19	79696.06	67
208633.19	79696.06	67
208643.19	79696.06	67
208653.19	79696.06	67
208568.19	79701.06	67
208578.19	79701.06	67
208588.19	79701.06	67
208598.19	79701.06	67
208608.19	79701.06	67
208618.19	79701.06	67
208628.19	79701.06	67
208638.19	79701.06	67
208648.19	79701.06	67
208563.19	79706.06	67
208573.19	79706.06	67
208583.19	79706.06	67
208593.19	79706.06	67
208603.19	79706.06	67
208613.19	79706.06	67
208623.19	79706.06	67
208633.19	79706.06	67
208643.19	79706.06	67
208653.19	79706.06	67
208568.19	79711.06	67
208578.19	79711.06	67
208588.19	79711.06	67
208598.19	79711.06	67
208608.19	79711.06	67
208618.19	79711.06	67
208628.19	79711.06	67
208638.19	79711.06	67
208648.19	79711.06	67
208658.19	79711.06	67
208563.19	79716.06	67
208573.19	79716.06	67
208583.19	79716.06	67
208593.19	79716.06	67
208603.19	79716.06	67
208613.19	79716.06	67
208623.19	79716.06	67
208633.19	79716.06	67
208643.19	79716.06	67
208653.19	79716.06	67
208568.19	79721.06	67
208578.19	79721.06	67
208588.19	79721.06	67
208598.19	79721.06	67
208608.19	79721.06	67
208618.19	79721.06	67
208628.19	79721.06	67
208638.19	79721.06	67
208648.19	79721.06	67
208658.19	79721.06	67
208563.19	79726.06	67
208573.19	79726.06	67
208583.19	79726.06	67
208593.19	79726.06	67
208603.19	79726.06	67
208613.19	79726.06	67
208623.19	79726.06	67
208633.19	79726.06	67
208643.19	79726.06	67
208653.19	79726.06	67
208568.19	79731.06	67
208578.19	79731.06	67
208588.19	79731.06	67
208598.19	79731.06	67
208608.19	79731.06	67
208618.19	79731.06	67
208628.19	79731.06	67
208638.19	79731.06	67
208648.19	79731.06	67
208658.19	79731.06	67
208563.19	79736.06	67
208573.19	79736.06	67
208583.19	79736.06	67
208593.19	79736.06	67
208603.19	79736.06	67
208613.19	79736.06	67
208623.19	79736.06	67
208633.19	79736.06	67
208643.19	79736.06	67
208653.19	79736.06	67
208568.19	79741.06	67
208578.19	79741.06	67
208588.19	79741.06	67
208598.19	79741.06	67
208608.19	79741.06	67
208618.19	79741.06	67
208628.19	79741.06	67
208638.19	79741.06	67
208648.19	79741.06	67
208658.19	79741.06	67
208573.19	79746.06	67
208583.19	79746.06	67
208593.19	79746.06	67
208603.19	79746.06	67
208613.19	79746.06	67
208623.19	79746.06	67
208633.19	79746.06	67
208643.19	79746.06	67
208653.19	79746.06	67
208568.19	79751.06	67
208578.19	79751.06	67
208588.19	79751.06	67
208598.19	79751.06	67
208608.19	79751.06	67
208618.19	79751.06	67
208628.19	79751.06	67
208638.19	79751.06	67
208648.19	79751.06	67
208658.19	79751.06	67
208563.19	79756.06	67
208573.19	79756.06	67
208583.19	79756.06	67
208593.19	79756.06	67
208603.19	79756.06	67
208613.19	79756.06	67
208623.19	79756.06	67
208633.19	79756.06	67
208643.19	79756.06	67
208653.19	79756.06	67
208568.19	79761.06	67
208578.19	79761.06	67
208588.19	79761.06	67
208598.19	79761.06	67
208608.19	79761.06	67
208618.19	79761.06	67
208628.19	79761.06	67
208638.19	79761.06	67
208648.19	79761.06	67
208658.19	79761.06	67
208563.19	79766.06	67
208573.19	79766.06	67
208583.19	79766.06	67
208593.19	79766.06	67
208603.19	79766.06	67
208613.19	79766.06	67
208623.19	79766.06	67
208633.19	79766.06	67
208643.19	79766.06	67
208653.19	79766.06	67
208663.19	79766.06	67
208568.19	79771.06	67
208578.19	79771.06	67
208588.19	79771.06	67
208598.19	79771.06	67
208608.19	79771.06	67
208618.19	79771.06	67
208628.19	79771.06	67
208638.19	79771.06	67
208648.19	79771.06	67
208658.19	79771.06	67
208563.19	79776.06	67
208573.19	79776.06	67
208583.19	79776.06	67
208593.19	79776.06	67
208603.19	79776.06	67
208613.19	79776.06	67
208623.19	79776.06	67
208633.19	79776.06	67
208643.19	79776.06	67
208653.19	79776.06	67
208663.19	79776.06	67
208568.19	79781.06	67
208578.19	79781.06	67
208588.19	79781.06	67
208598.19	79781.06	67
208608.19	79781.06	67
208618.19	79781.06	67
208628.19	79781.06	67
208638.19	79781.06	67
208648.19	79781.06	67
208658.19	79781.06	67
208563.19	79786.06	67
208573.19	79786.06	67
208583.19	79786.06	67
208593.19	79786.06	67
208603.19	79786.06	67
208613.19	79786.06	67
208633.19	79786.06	67
208643.19	79786.06	67
208653.19	79786.06	67
208663.19	79786.06	67
208558.19	79791.06	67
208568.19	79791.06	67
208578.19	79791.06	67
208588.19	79791.06	67
208598.19	79791.06	67
208608.19	79791.06	67
208618.19	79791.06	67
208638.19	79791.06	67
208648.19	79791.06	67
208658.19	79791.06	67
208563.19	79796.06	67
208573.19	79796.06	67
208583.19	79796.06	67
208593.19	79796.06	67
208603.19	79796.06	67
208613.19	79796.06	67
208623.19	79796.06	67
208633.19	79796.06	67
208643.19	79796.06	67
208653.19	79796.06	67
208558.19	79801.06	67
208568.19	79801.06	67
208578.19	79801.06	67
208588.19	79801.06	67
208598.19	79801.06	67
208608.19	79801.06	67
208618.19	79801.06	67
208638.19	79801.06	67
208648.19	79801.06	67
208658.19	79801.06	67
208553.19	79806.06	67
208563.19	79806.06	67
208573.19	79806.06	67
208583.19	79806.06	67
208593.19	79806.06	67
208603.19	79806.06	67
208613.19	79806.06	67
208623.19	79806.06	67
208643.19	79806.06	67
208653.19	79806.06	67
208548.19	79811.06	67
208558.19	79811.06	67
208568.19	79811.06	67
208578.19	79811.06	67
208588.19	79811.06	67
208598.19	79811.06	67
208608.19	79811.06	67
208618.19	79811.06	67
208628.19	79811.06	67
208648.19	79811.06	67
208658.19	79811.06	67
208553.19	79816.06	67
208563.19	79816.06	67
208573.19	79816.06	67
208583.19	79816.06	67
208593.19	79816.06	67
208603.19	79816.06	67
208613.19	79816.06	67
208623.19	79816.06	67
208633.19	79816.06	67
208653.19	79816.06	67
208568.19	79821.06	67
208578.19	79821.06	67
208588.19	79821.06	67
208598.19	79821.06	67
208608.19	79821.06	67
208618.19	79821.06	67
208628.19	79821.06	67
208638.19	79821.06	67
208658.19	79821.06	67
208573.19	79826.06	67
208583.19	79826.06	67
208593.19	79826.06	67
208603.19	79826.06	67
208613.19	79826.06	67
208623.19	79826.06	67
208633.19	79826.06	67
208643.19	79826.06	67
208568.19	79831.06	67
208578.19	79831.06	67
208588.19	79831.06	67
208598.19	79831.06	67
208608.19	79831.06	67
208618.19	79831.06	67
208628.19	79831.06	67
208638.19	79831.06	67
208573.19	79836.06	67
208583.19	79836.06	67
208593.19	79836.06	67
208603.19	79836.06	67
208613.19	79836.06	67
208623.19	79836.06	67
208633.19	79836.06	67
208643.19	79836.06	67
208578.19	79841.06	67
208588.19	79841.06	67
208598.19	79841.06	67
208608.19	79841.06	67
208618.19	79841.06	67
208628.19	79841.06	67
208638.19	79841.06	67
208573.19	79846.06	67
208583.19	79846.06	67
208593.19	79846.06	67
208603.19	79846.06	67
208613.19	79846.06	67
208623.19	79846.06	67
208633.19	79846.06	67
208643.19	79846.06	67
208578.19	79851.06	67
208588.19	79851.06	67
208598.19	79851.06	67
208608.19	79851.06	67
208618.19	79851.06	67
208628.19	79851.06	67
208638.19	79851.06	67
208648.19	79851.06	67
208573.19	79856.06	67
208583.19	79856.06	67
208593.19	79856.06	67
208603.19	79856.06	67
208613.19	79856.06	67
208623.19	79856.06	67
208633.19	79856.06	67
208643.19	79856.06	67
208578.19	79861.06	67
208588.19	79861.06	67
208598.19	79861.06	67
208608.19	79861.06	67
208618.19	79861.06	67
208628.19	79861.06	67
208638.19	79861.06	67
208648.19	79861.06	67
208573.19	79866.06	67
208583.19	79866.06	67
208593.19	79866.06	67
208603.19	79866.06	67
208613.19	79866.06	67
208623.19	79866.06	67
208633.19	79866.06	67
208643.19	79866.06	67
208578.19	79871.06	67
208588.19	79871.06	67
208598.19	79871.06	67
208608.19	79871.06	67
208618.19	79871.06	67
208628.19	79871.06	67
208638.19	79871.06	67
208648.19	79871.06	67
208583.19	79876.06	67
208593.19	79876.06	67
208603.19	79876.06	67
208613.19	79876.06	67
208623.19	79876.06	67
208633.19	79876.06	67
208643.19	79876.06	67
208578.19	79881.06	67
208588.19	79881.06	67
208598.19	79881.06	67
208608.19	79881.06	67
208618.19	79881.06	67
208628.19	79881.06	67
208638.19	79881.06	67
208648.19	79881.06	67
208583.19	79886.06	67
208593.19	79886.06	67
208603.19	79886.06	67
208613.19	79886.06	67
208623.19	79886.06	67
208633.19	79886.06	67
208643.19	79886.06	67
208578.19	79891.06	67
208588.19	79891.06	67
208598.19	79891.06	67
208608.19	79891.06	67
208618.19	79891.06	67
208628.19	79891.06	67
208638.19	79891.06	67
208648.19	79891.06	67
208583.19	79896.06	67
208593.19	79896.06	67
208603.19	79896.06	67
208613.19	79896.06	67
208623.19	79896.06	67
208633.19	79896.06	67
208643.19	79896.06	67
208588.19	79901.06	67
208598.19	79901.06	67
208608.19	79901.06	67
208618.19	79901.06	67
208628.19	79901.06	67
208638.19	79901.06	67
208648.19	79901.06	67
208593.19	79906.06	67
208603.19	79906.06	67
208613.19	79906.06	67
208623.19	79906.06	67
208633.19	79906.06	67
208643.19	79906.06	67
208598.98	79909.62	67
208608.19	79911.06	67
208618.19	79911.06	67
208628.19	79911.06	67
208638.19	79911.06	67
208648.19	79911.06	67
208603.19	79916.06	67
208613.19	79916.06	67
208623.19	79916.06	67
208633.19	79916.06	67
208643.19	79916.06	67
208608.19	79921.06	67
208618.19	79921.06	67
208628.19	79921.06	67
208638.19	79921.06	67
208648.19	79921.06	67
208613.19	79926.06	67
208623.19	79926.06	67
208633.19	79926.06	67
208643.19	79926.06	67
208653.19	79926.06	67
208628.19	79931.06	67
208638.19	79931.06	67
208648.19	79931.06	67
208643.19	79936.06	67
208653.19	79936.06	67
208648.19	79941.06	67
208643.19	79946.06	67
208653.19	79946.06	67
208648.19	79951.06	67
208658.19	79951.06	67
208653.19	79956.06	67
208658.19	79961.06	67
208653.19	79966.06	67
208663.19	79966.06	67
208658.19	79971.06	67
208663.19	79976.06	67
208658.19	79981.06	67
208663.19	79986.06	67
208658.19	79991.06	67
208668.19	79991.06	67
208663.19	79996.06	67
208658.19	80001.06	67
208668.19	80001.06	67
208653.19	80006.06	67
208663.19	80006.06	67
208658.19	80011.06	67
208668.19	80011.06	67
208653.19	80016.06	67
208663.19	80016.06	67
208673.19	80016.06	67
208648.19	80021.06	67
208658.19	80021.06	67
208668.19	80021.06	67
208643.19	80026.06	67
208653.19	80026.06	67
208663.19	80026.06	67
208673.19	80026.06	67
208638.19	80031.06	67
208648.19	80031.06	67
208658.19	80031.06	67
208668.19	80031.06	67
208678.19	80031.06	67
208622.38	80038.8	67
208633.19	80036.06	67
208643.19	80036.06	67
208653.19	80036.06	67
208663.19	80036.06	67
208673.19	80036.06	67
208628.19	80041.06	67
208638.19	80041.06	67
208648.19	80041.06	67
208658.19	80041.06	67
208668.19	80041.06	67
208678.19	80041.06	67
208633.19	80046.06	67
208643.19	80046.06	67
208653.19	80046.06	67
208663.19	80046.06	67
208673.19	80046.06	67
208683.19	80046.06	67
208628.19	80051.06	67
208638.19	80051.06	67
208648.19	80051.06	67
208658.19	80051.06	67
208668.19	80051.06	67
208678.19	80051.06	67
208688.19	80051.06	67
208623.19	80056.06	67
208633.19	80056.06	67
208643.19	80056.06	67
208653.19	80056.06	67
208663.19	80056.06	67
208673.19	80056.06	67
208683.19	80056.06	67
208693.19	80056.06	67
208628.19	80061.06	67
208638.19	80061.06	67
208648.19	80061.06	67
208658.19	80061.06	67
208668.19	80061.06	67
208678.19	80061.06	67
208688.19	80061.06	67
208623.19	80066.06	67
208633.19	80066.06	67
208643.19	80066.06	67
208653.19	80066.06	67
208663.19	80066.06	67
208673.19	80066.06	67
208683.19	80066.06	67
208693.19	80066.06	67
208628.19	80071.06	67
208638.19	80071.06	67
208648.19	80071.06	67
208658.19	80071.06	67
208668.19	80071.06	67
208678.19	80071.06	67
208688.19	80071.06	67
208698.19	80071.06	67
208633.19	80076.06	67
208643.19	80076.06	67
208653.19	80076.06	67
208663.19	80076.06	67
208673.19	80076.06	67
208683.19	80076.06	67
208693.19	80076.06	67
208628.19	80081.06	67
208638.19	80081.06	67
208648.19	80081.06	67
208658.19	80081.06	67
208668.19	80081.06	67
208678.19	80081.06	67
208688.19	80081.06	67
208698.19	80081.06	67
208633.19	80086.06	67
208643.19	80086.06	67
208653.19	80086.06	67
208663.19	80086.06	67
208673.19	80086.06	67
208683.19	80086.06	67
208693.19	80086.06	67
208703.19	80086.06	67
208638.19	80091.06	67
208648.19	80091.06	67
208658.19	80091.06	67
208668.19	80091.06	67
208678.19	80091.06	67
208688.19	80091.06	67
208698.19	80091.06	67
208708.19	80091.06	67
208643.19	80096.06	67
208653.19	80096.06	67
208663.19	80096.06	67
208673.19	80096.06	67
208683.19	80096.06	67
208693.19	80096.06	67
208703.19	80096.06	67
208638.19	80101.06	67
208648.19	80101.06	67
208678.19	80101.06	67
208688.19	80101.06	67
208698.19	80101.06	67
208708.19	80101.06	67
208643.19	80106.06	67
208683.19	80106.06	67
208693.19	80106.06	67
208703.19	80106.06	67
208713.19	80106.06	67
208698.19	80111.06	67
208708.19	80111.06	67
208718.19	80111.06	67
208823.97	80117.92	67
208820.81	80127.02	67
208829.62	80128.56	67
208818.7	80152.38	67
208814.75	80154.24	67
208700.81	79978.82	67
208751.12	80087.18	67
208682.55	79792.41	67
208666.25	79663.25	67
208586.23	79532.91	67
208554.95	79523.3	89
208542.86	79550.94	93
208537.77	79563.45	67
208520.3	79606.17	90
208508.98	79633.96	90
208486.14	79689.95	90
208554.61	79530.65	67
208560.27	79534.41	67
208566.55	79536.84	67
208567.2	79530.46	67
208561.75	79526.75	67
208557.05	79524.52	67
208576.14	79539.1	67
208578.33	79548.47	67
208576.41	79904.59	67
208581.41	79909.59	67
208591.41	79909.59	67
208576.41	79914.59	67
208586.41	79914.59	67
208596.41	79914.59	67
208581.41	79919.59	67
208591.41	79919.59	67
208601.41	79919.59	67
208576.41	79924.59	67
208586.41	79924.59	67
208596.41	79924.59	67
208581.41	79929.59	67
208591.41	79929.59	67
208601.41	79929.59	67
208586.41	79934.59	67
208596.41	79934.59	67
208591.41	79939.59	67
208601.41	79939.59	67
208586.41	79944.59	67
208596.41	79944.59	67
208591.41	79949.59	67
208601.41	79949.59	67
208586.41	79954.59	67
208596.41	79954.59	67
208581.41	79959.59	67
208591.41	79959.59	67
208601.41	79959.59	67
208586.41	79964.59	67
208596.41	79964.59	67
208581.41	79969.59	67
208591.41	79969.59	67
208586.41	79974.59	67
208573.83	79971.02	67
208568.83	79976.02	67
208578.83	79976.02	67
208563.83	79981.02	67
208573.83	79981.02	67
208583.83	79981.02	67
208568.83	79986.02	67
208578.83	79986.02	67
208573.83	79991.02	67
208583.83	79991.02	67
208566.45	79965.66	67
208560.11	79973.38	67
208632.31	79936.7	67
208627.31	79941.7	67
208637.31	79941.7	67
208632.31	79946.7	67
208642.31	79946.7	67
208627.31	79951.7	67
208637.31	79951.7	67
208632.31	79956.7	67
208642.31	79956.7	67
208627.31	79961.7	67
208637.31	79961.7	67
208647.31	79961.7	67
208632.31	79966.7	67
208642.31	79966.7	67
208627.31	79971.7	67
208637.31	79971.7	67
208647.31	79971.7	67
208612.31	79976.7	67
208622.31	79976.7	67
208632.31	79976.7	67
208642.31	79976.7	67
208652.31	79976.7	67
208617.31	79981.7	67
208627.31	79981.7	67
208637.31	79981.7	67
208647.31	79981.7	67
208612.31	79986.7	67
208622.31	79986.7	67
208632.31	79986.7	67
208642.31	79986.7	67
208652.31	79986.7	67
208617.31	79991.7	67
208627.31	79991.7	67
208637.31	79991.7	67
208647.31	79991.7	67
208622.31	79996.7	67
208632.31	79996.7	67
208642.31	79996.7	67
208652.31	79996.7	67
208617.31	80001.7	67
208627.31	80001.7	67
208637.31	80001.7	67
208647.31	80001.7	67
208622.31	80006.7	67
208632.31	80006.7	67
208642.31	80006.7	67
208627.31	80011.7	67
208637.31	80011.7	67
208647.31	80011.7	67
208622.31	80016.7	67
208632.31	80016.7	67
208642.31	80016.7	67
208627.31	80021.7	67
208637.31	80021.7	67
208632.31	80026.7	67
208627.31	80031.7	67
208613.03	79934.89	67
208623.03	79934.89	67
208608.03	79939.89	67
208618.03	79939.89	67
208613.03	79944.89	67
208623.03	79944.89	67
208608.03	79949.89	67
208618.03	79949.89	67
208613.03	79954.89	67
208623.03	79954.89	67
208608.03	79959.89	67
208618.03	79959.89	67
208603.03	79964.89	67
208613.03	79964.89	67
208623.03	79964.89	67
208598.03	79969.89	67
208608.03	79969.89	67
208618.03	79969.89	67
208603.03	79974.89	67
208598.03	79979.89	67
208593.03	79984.89	67
208603.03	79984.89	67
208588.03	79989.89	67
208598.03	79989.89	67
208608.03	79989.89	67
208593.03	79994.89	67
208603.03	79994.89	67
208598.03	79999.89	67
208608.03	79999.89	67
208603.03	80004.89	67
208613.03	80004.89	67
208598.03	80009.89	67
208608.03	80009.89	67
208593.03	80014.89	67
208603.03	80014.89	67
208613.03	80014.89	67
208588.03	80019.89	67
208598.03	80019.89	67
208608.03	80019.89	67
208618.03	80019.89	67
208613.03	80024.89	67
208618.03	80029.89	67
208623.03	80034.89	67
208558.92	79991.06	67
208553.92	79996.06	67
208563.92	79996.06	67
208573.92	79996.06	67
208583.92	79996.06	67
208558.92	80001.06	67
208568.92	80001.06	67
208578.92	80001.06	67
208588.92	80001.06	67
208553.92	80006.06	67
208563.92	80006.06	67
208573.92	80006.06	67
208583.92	80006.06	67
208558.92	80011.06	67
208568.92	80011.06	67
208578.92	80011.06	67
208588.92	80011.06	67
208563.92	80016.06	67
208573.92	80016.06	67
208583.92	80016.06	67
208568.92	80021.06	67
208578.92	80021.06	67
208573.92	80026.06	67
208801.84	79742.77	67
208809.44	79742.34	67
208849.67	79924.18	67
208851.92	79925.39	67
208581.41	79485.82	67
208583.89	79486.67	67
207210.69	78592.52	79
207215.78	78618.09	88
207202.81	78658.93	88
207187.08	78634.01	86
207175.97	78658.47	85
207154.69	78663.08	85
207151.52	78636.8	86
207155.23	78614.89	80
206923.69	78566.38	82
206926.66	78586.58	83
206952.95	78584.34	79
206910.17	78548.88	74
206888.7	78542.91	77
206910.11	78602.32	86
206924.25	78622.16	92
206953.83	78612.98	78
206975.33	78607.82	78
206995.69	78602.57	74
207020.89	78606.27	89
207047	78592.1	71
207067.86	78585.55	78
207089.53	78581.82	78
207110.69	78582.8	77
207133.39	78583.13	81
207078.3	78609.98	86
207102.72	78608.55	86
207131.83	78619.87	98
207131.02	78673.25	83
207125.75	78650.09	88
207106.75	78630.41	88
207082.34	78660.73	90
207093.17	78686.2	88
207058.06	78639.68	98
207048.55	78660.13	90
207041.36	78685.34	90
207059.34	78619.12	90
206990.08	78653.55	89
206987.58	78632.09	91
207015.59	78625.89	89
207034.69	78637.5	87
207022.52	78655.71	90
206999.61	78683.4	90
206976.62	78679.87	92
206963.06	78661.88	93
206939.39	78664.41	92
206915.22	78664.64	92
206968.61	78639.1	92
206942.78	78642.09	90
206908.41	78635.05	92
206875.05	78568.3	92
206897.91	78578.04	88
206854.59	78551.1	93
206835.72	78542.3	93
206812.19	78536.58	93
206776.52	78552.33	93
206754.95	78541.57	94
206764.64	78523.15	85
206784.14	78532.11	86
206817.44	78516.31	85
206851.12	78525.57	89
206836.56	78510.41	86
206799.8	78502.22	77
206730.72	78544.99	83
206714.31	78574.8	90
206810.42	78559	88
206790.88	78570.77	104
206772.97	78585.44	102
206755.8	78566.08	103
206737.88	78576.48	100
206725.3	78592.41	104
206716.36	78612.11	105
206701.89	78626.14	107
207479.39	78569.65	66
207447.61	78580.71	62
207503.08	78585.05	63
207517.66	78604.59	62
207538.81	78598.38	61
207562.14	78595.42	56
207577.5	78610.37	62
207599.75	78609.61	60
207622.77	78626.58	67
207646.92	78631.85	57
207670.58	78648.48	66
207698.5	78654.33	69
207724.64	78675.22	62
207735.47	78657.91	63
207763.92	78679.45	62
207783.97	78678.19	62
207810.92	78697.28	63
207932.61	78740.49	61
207937.84	78720.26	61
207908.48	78725.88	63
207965.06	78744.54	59
207987.3	78743.71	56
208010.22	78740.98	64
208024.55	78755.74	58
208037.55	78774.09	62
208062.16	78778.98	58
208084.48	78777.82	59
208079.72	78798.55	66
207166.94	78579.5	81
207193.86	78576.05	83
207297.16	78557.77	90
207281.84	78582.87	89
207343.53	78610.41	84
207395.28	78625.55	91
207415.44	78609.16	89
207434.36	78615.74	84
207444.94	78633.4	96
207447.25	78661.57	95
207446.84	78689.01	95
207377.12	78556.82	81
207337.56	78551.98	86
207425.34	78584.28	78
207403.55	78572.73	81
207468.59	78603.72	80
207498.3	78615.29	83
207487.06	78641.19	92
207506.39	78653.34	81
207530.78	78656.52	82
207549	78618.13	86
207552.59	78642.02	84
207596	78680.19	84
207572.44	78728.15	80
207684.33	78748.11	87
207833.33	78715.69	81
207911.12	78751.61	87
207886.67	78764.31	87
207879.02	78793.52	89
207872.94	78819.69	89
207840.64	78781.75	80
207802.84	78761.77	81
207779.58	78805.98	81
207859.12	78838.63	80
207995.88	78797.55	84
208072.69	78857.77	84
208091.33	78815.26	84
208054.5	78951.66	85
208092.72	78978.29	90
208081.86	79011.17	86
208060.69	79027.04	88
208069.02	79045.77	92
208089.91	79060.69	93
208127.44	79089.71	92
208165.61	79121.81	94
208196.47	79085.65	97
208157.5	79013.52	78
207447.72	78559.48	62
207620.3	78605.2	66
208052.02	78758.58	63
207884.36	78724.83	74
208412.81	79671.17	74
208417.12	79693.91	73
208416.3	79718.38	74
208439.22	79735.12	66
208419.39	79761.89	68
208424.16	79785.48	65
208420.7	79819.45	69
208445.39	79757.4	65
208440.3	79683.12	69
208410.38	79583.55	69
208408.33	79491.79	69
208312.64	79270.09	74
208366.8	79256.95	73
208342.31	79224.94	68
208296.53	79222.47	69
208286.27	79198.2	69
208269.72	79177.33	66
208284.52	79158.62	68
208223.78	79040.75	59
207640.8	78656.06	75
207620	78653.7	77
207585.3	78634.44	77
207789.12	78711.65	71
207853.44	78716.66	72
207868.77	78696.98	70
207846.92	78689.83	72
208324.81	79288.51	69
208355.86	79276.45	73
208452.7	79872.27	65
208432.27	79879.13	66
208456.44	79895.59	64
208455.61	79967.53	64
208453.16	80664.17	89
208420.41	80671.13	90
208413.61	80606.19	88
208446.3	80600.65	90
208451.48	80570.69	69
208394.39	80565.24	98
208424.2	80547.95	94
208371.61	80574.89	99
208344.47	80521.64	93
208369.48	80489	90
208443.81	80484.04	81
208441.81	80513.75	92
208445.94	80533.48	89
208413.8	80639.89	88
208361.06	80643.89	83
208384.08	80631.12	83
208341.17	80655.76	92
208385.5	80703	89
208403.92	80528.8	92
208437.98	80352.87	82
208430.81	80322.58	95
208459.61	80313.38	82
208397.16	80287.55	94
208345.19	80314.01	92
208343.02	80334.7	91
208371.58	80369.98	91
208335.02	80228.23	95
208330.3	80247.88	95
208352.52	80239.92	88
208418.27	80229.15	89
208437.31	80216.09	80
208430.56	80148.84	87
208429.44	80105.6	83
208425.66	80084.24	83
208431.08	80028.09	88
208430.45	80003.62	89
208429.52	79973.28	89
208428.91	79940.56	90
208430.7	79901.2	100
208405.53	79894.08	101
208372.64	80017.82	95
208370.7	80038.63	95
208363.2	80060.21	95
208338.52	80058.87	102
208381.16	80076.17	102
208365.61	80101.71	92
208354.05	80137.8	88
208337.8	80157.3	97
208394.78	80057.29	85
208327.86	80083.25	104
208350.69	80021.34	104
208368.97	79976.53	103
208420.61	79851.25	102
208378.31	80216.8	90
208439.31	80248.21	83
208431.36	80272.79	79
208393.69	80235.3	92
208413.11	80254.46	101
208386.7	80255	94
208368.64	80301.06	93
208435.53	80299.31	85
208428.73	80386.39	94
208434	80435.96	85
208384	80442.01	94
208363.81	80416.43	83
208398.95	80462.01	84
208348.47	80479.8	83
208438.39	80460.27	86
208371.53	80677.88	77
208550.03	79534.9	90
208542.14	79556.44	86
208519.94	79611.57	83
208536.69	79624.83	80
208508.17	79635.2	101
208500.16	79659.26	89
208487.39	79689.48	82
208542.39	79715.45	78
208473.48	79720.61	101
208464.39	79745.27	83
208462.98	79768.66	83
208450.84	79790.73	89
208462.03	79822.35	91
208464.48	79851.66	90
208478.27	79889.81	79
208500.8	79898.52	80
208525.89	79910.44	90
208561.33	79928.71	89
208538.36	79934.45	89
208458.48	79921.76	88
208489.17	79924.06	95
208461.17	79944.59	87
208501.61	79968.46	89
208510.97	80012.66	96
208529.02	80049.76	95
208548.81	80010.05	101
208505.83	80049.39	100
208478.91	80026.15	101
208463.77	79988.7	87
208537.22	80070.48	92
208544.45	80110.73	94
208487.53	80173.47	121
208540.31	80190.35	93
208568.44	80177.52	84
208507.22	80220.66	86
208489.16	80229.82	96
208569.95	80250.8	89
208485.05	80301.12	74
208554	80301.87	82
208501.86	80324.34	87
208483.31	80345.6	96
208499.59	80377.08	83
208526	80397.64	78
208503.58	80403.39	84
208484.25	80417.82	83
208487.22	80460.03	85
208486.42	80492.8	83
208513.22	80486.59	78
208546.3	80475.7	78
208568.81	80457.96	79
208606.75	80441.68	83
208524.8	80512.24	81
208573.58	80517.19	74
208594.84	80511.01	80
208503.58	80537.73	80
208492.23	80554.59	83
208490.84	80519.96	83
208490.78	80578.45	82
208494.83	80605.76	83
208492.03	80641.41	83
208511.47	80631.2	81
208541.39	80632.64	79
208594.31	80586.05	80
208564.05	80581.67	74
208536.39	80579.85	78
208456.36	80638.34	71
208478.36	80389.57	60
208462.75	80617.02	61
208470.8	80595.57	56
208469	80558.01	62
208458.67	80453.27	60
208455.47	80410.29	62
208452.12	80386.74	65
208462.08	80513.81	57
208473.44	80272.77	71
208472.55	80252.32	70
208470.08	80206.23	72
208469.97	80152.63	68
208465.44	80120.5	73
208464.69	80100.02	71
208464.67	80078.7	75
208463.27	80058.38	73
208428.97	80050.28	70
208437.22	80173.24	69
208438.97	80194	68
208452.81	80283.23	66
208457.69	80224.46	65
208464.62	80175.39	70
208439.7	80126.41	67
208457.42	80031	67
208453.5	80009.49	70
208439.59	79832.73	65
208506.45	79577.06	88
208509.59	79548.5	89
208400.58	79853.75	96
208379.89	79836.62	95
208344.86	79814.12	97
208445.69	79663.74	82
208452.77	79632.87	82
208451.23	79608.11	83
208439.84	79584.93	80
208465.44	79583.75	94
208479.53	79561.95	78
208477.05	79540.95	94
208441.84	79537.3	97
208436.72	79559.47	90
208404.09	79538.68	97
208403.69	79608.06	86
208399.95	79643.23	87
208412.97	79738.6	93
208330.19	79795.38	101
208386.75	79722.18	94
208337.92	79673.8	138
208327.69	79717.41	115
208353.03	79710.16	99
208307.03	79734.18	106
208308.69	79763.75	93
208355.89	79555.72	106
208355.95	79519.57	110
208385.53	79552.16	99
208396.17	79517.02	97
208320.23	79502.99	203
208335.11	79599.3	231
208319.92	79543.59	180
208321.14	79575.59	188
208383.25	79484.45	101
208395.89	79459.58	88
208384.83	79435.16	89
208366.41	79423.74	84
208375.86	79402.85	89
208359.89	79376.11	90
208341.89	79344.55	88
208332.19	79310.39	71
208255.92	79309.84	98
208269.75	79337.28	98
208286.06	79362.34	81
208306.2	79398.43	102
208318.2	79417.66	103
208357.38	79456.48	98
208334.8	79461.14	124
208296.2	79466.16	175
208327.59	79439.31	103
208238.03	79272.19	99
208230.08	79252.6	97
208220.23	79215.11	89
208206.45	79184.54	89
208181.02	79139.91	89
208213.89	79106	84
208243.55	79157.41	82
208234.05	79189	81
208161.38	79095.95	93
208171.52	79074.74	91
208181.09	79045.19	92
208180.73	79015.37	92
208144.16	78942.3	85
208115.78	78893.08	79
207992.72	78903.47	88
208023.33	78950.66	88
208115.83	79005.56	85
208135.55	79017.27	86
208140.95	79040.77	93
208115.77	79051.6	92
208091.48	79037.51	91
208042.11	79004.45	83
208010.05	78967.69	82
208029.52	78976.82	92
207753.12	78730.21	80
207722.56	78737.8	85
207713.27	78778.49	86
207566.62	78662.43	77
207547.88	78675.94	83
207423.09	78675.86	94
207369.72	78600.98	84
207395.12	78600.48	79
207315.72	78600.99	93
207304.17	78621.7	91
207259.41	78562.56	87
207237.61	78572.77	89
207231.19	78592.2	96
206893.27	78662.85	98
206708.25	78525.27	86
206723.5	78508.31	82
206747.69	78490.55	82
206828.58	78468.78	81
206820.92	78423.45	94
206842	78420.58	86
206802.47	78434.9	90
206745.23	78434.64	95
206723.3	78429.28	89
206712.36	78395.57	90
206752.27	78410.72	88
206818.69	78388.02	93
206937.72	78403.77	97
206940.75	78437.57	93
206940.52	78374.38	99
206939.17	78465.98	91
206941.61	78496.79	93
206939.3	78519.7	87
206975.06	78528.5	84
207003.38	78532.65	90
207018.58	78508.74	95
207050.06	78518.81	94
206905.39	78488.34	83
206912.66	78459.82	87
206882.27	78423.13	87
206902.56	78422.11	83
206892.78	78462.52	84
207065.02	78499.7	87
207088.17	78508.64	92
207100.83	78536.05	93
207126.48	78540.66	86
207150.86	78545.71	96
207178.73	78545.41	83
207222.84	78538.73	87
207308.84	78504.88	92
207295.95	78483.38	92
207259.83	78487.98	94
207238.47	78484.41	99
207223.5	78509.19	91
207204.48	78522.05	92
207329.11	78499.12	83
207355.67	78504.55	83
207402.81	78531.11	87
207428.36	78546.28	85
207415.19	78467.84	89
207394.36	78481.83	92
207376.72	78494.64	93
207411.94	78445.03	91
207433.7	78428.19	90
207408.75	78413.8	86
207408.39	78380.95	93
207407.08	78357.22	93
207511.84	78565.31	78
207534.73	78528	90
207542.23	78508.9	90
207544.59	78485.07	84
207539.95	78461.81	86
207571.77	78432.77	81
207561.2	78460.09	77
207566.72	78569.68	78
207559.05	78541.5	79
207598.69	78417.87	81
207594.31	78441.02	80
207590.53	78468.68	84
207614.16	78470.98	86
207615.48	78499.16	89
207626.84	78520.99	81
207631.09	78558.52	81
207696.44	78567.91	79
207717.8	78568.31	87
207711.05	78636.93	86
207668.95	78628.05	91
207768.52	78658.55	96
207818.25	78675.95	93
207897.8	78699.62	92
207974.59	78726.22	89
208072.52	78760.68	84
207992.73	78629.24	81
208013.5	78621.75	80
207954.36	78624.77	78
207923.12	78633.07	78
207882.77	78674.53	84
208117.77	78744.89	79
208148.48	78756.81	96
208175.23	78753.08	92
208181.05	78777.41	96
208198.72	78787.81	95
208214.25	78774.23	94
208234.02	78770.71	88
208250.69	78782.65	95
208166.42	78810.14	97
208139.62	78807.24	97
208123.67	78789.35	101
208106.59	78773.77	100
208140.11	78831.42	100
208146.58	78874.02	102
208164.86	78912.51	101
208174.05	78937.55	99
208190.45	78967.3	100
208216.38	79006.05	102
208252.73	79071.67	103
208305.73	79168.72	85
208288.75	79095	81
208294.08	79070.88	79
208313.16	79051.1	81
208336.59	78997.8	80
208355.23	78964.29	80
208357.36	78942.52	80
208360.7	78918.48	79
208358.61	79054.94	80
208354.47	79075.43	81
208376.31	79098.59	81
208393.08	79115.08	76
208370.61	79124.33	81
208373.2	79186.16	76
208395.09	79195.71	79
208412.39	79210.41	81
208327.84	79205.34	86
208406.03	79291.52	83
208421.23	79306.64	82
208430.8	79328.17	82
208429.94	79349.45	83
208449.14	79380.31	81
208457.44	79398.57	82
208461.59	79425.27	81
208464.72	79451.11	82
208470.61	79476.43	81
208502.78	79471.81	78
208523.39	79471.17	79
208544.88	79482.45	83
208503.41	79494.47	91
208482.11	79504.48	84
208427.53	79388.52	83
208406.53	79365.38	86
208402.97	79335.04	81
208384.61	79313.23	81
208427.14	79421.02	82
208437.45	79439.59	89
208445.56	79481.32	86
208447.23	79510.23	87
206779.47	78480.05	76
207282.3	78519.68	77
207635.56	78765.25	75
208104.34	78849.34	79
208147.55	78894.47	79
208141.53	78851.65	78
206720.48	81963.84	138
206747.67	81979.95	134
206777.09	81991.23	132
206722.48	81939.16	132
206741.48	81912.54	124
206742.92	81888.05	141
206731.14	81866.46	138
206712.66	81874.38	137
206762.5	81900.41	134
206790.81	81909.01	139
206802.08	81930.09	121
206832.23	81911.56	137
206799.75	81954.27	134
206780.23	81970.44	133
206876.5	81828.55	124
206816.94	81893	133
206797	81883.08	135
206768.88	81873.09	132
206742.14	82052.36	131
206726.23	82031.8	130
206701.06	82037.91	131
206716.28	82058.46	128
206740.47	82072.75	130
206732.23	82102.77	125
206707.52	82017.38	129
206748.47	82022.85	131
206730	82009.34	129
206713.41	81994.96	129
206750.67	81853.53	137
206752.83	81831.02	131
206766.09	81925.31	105
206709.61	81898.95	115
206840.16	81888.36	130
206826.27	81836.09	128
206824.2	81815.84	134
206862.59	81812.95	118
206856.34	81838.05	123
206860.09	81864.61	124
206715.83	81775.7	149
206735.52	81760.55	150
206722.61	81806.9	137
206712.94	81825.38	137
206743.27	81805.84	129
206762.03	81772.37	130
206784.22	81852.7	131
206804.84	81853.2	130
206818.28	81871.17	133
206798.19	81832.28	129
206798.77	81811.11	131
206808.39	81793.16	130
206775.86	81811.52	133
206744.17	81783.52	135
206751.2	81948.02	130
208596.98	80290.04	87
208619.66	80280.1	87
208607.44	80322.24	86
208695.25	80251.47	76
208700.22	80224.88	76
208631.89	80536.48	74
208662.97	80532.78	74
208688.67	80529.58	74
208662.55	80559.01	73
208685.89	80558.76	74
208710.89	80558.76	74
208634.45	80559.87	74
208601.28	80552.91	74
208618.28	80521.17	73
208642.42	80512.2	74
208663.05	80504.18	74
208686.23	80495.09	75
208623.36	80488.73	87
208640.17	80477.27	90
208617.16	80064.45	92
208614.5	80033.62	94
208593.95	80041.81	91
208591.42	80070.02	94
208590.25	80095.19	91
208587.33	80125.25	96
208683.55	80154.25	79
208715.47	80153.62	79
208693.06	80115.34	78
208672.02	80131.55	80
208665.56	80097.68	78
208643.22	80112.02	80
208624.06	80121.36	82
208628.64	80150.64	88
208592.67	80161.67	94
208619.06	80179.91	83
208598.14	80210.81	83
208598.2	80241.02	84
208633.3	80224.94	87
208650.14	80201.74	80
208653.31	80171.77	80
208675.66	80206.59	80
208708.42	80192.23	82
208723.19	80117.93	81
208743.58	80161.78	81
208732.09	80179.27	83
208721.56	80213.66	81
208717.97	80246.15	76
208748.41	80247.45	79
208752.03	80279.12	85
208763.34	80305.24	80
208727.03	80293.42	83
208734.3	80346.67	80
208748.08	80512.26	76
208762.34	80535.44	77
208775.7	80513.33	79
208785.92	80487.25	79
208803.53	80441.25	76
208822.78	80461.44	77
208770.58	80471.12	78
208747.44	80474.9	81
208754.77	80442.74	81
208779.52	80431.54	81
208798.66	80420.7	79
208759.66	80393.21	82
208737.3	80385.38	82
208714.45	80378.02	81
208690.45	80372.84	82
208646.73	80400.97	76
208621.12	80415.16	74
208618.67	80392.38	74
208638.89	80374.95	74
208661.92	80341.77	74
208680.19	80317.2	75
208701.53	80301.94	75
208692.53	80334.93	83
208670.22	80395.36	83
208662.25	80414.84	84
208658.17	80441.37	84
208634.05	80438.7	79
208628.77	80459.52	90
208605.91	80467.68	86
208687.3	80409.53	77
208702.47	80425.71	73
208705.48	80448.23	75
208717.69	80480.92	75
208718.03	80509.64	76
208719.75	80532.72	75
208636.64	80598.02	73
208603.67	80616.16	79
208760.05	80585.39	71
208776.73	80561.51	71
208793.89	80534.68	72
208817.91	80518.95	71
208827.89	80487.72	71
208830.66	80434.09	71
208819.84	80404.52	72
208818.3	80372.7	72
208793.17	80395.22	79
208756.19	80362.12	84
208798.53	80358.39	78
208779.67	80330.6	78
208789.84	80308.23	71
208757.62	80334.66	83
208682.81	80278.16	77
208641	80308.46	79
208603.25	80346.68	78
208651.16	80285.85	85
208670.92	80249.29	84
208653.69	80262.01	91
208619.23	80245.35	85
208655.39	80226.35	83
208664.77	79768.48	79
208637.06	79761.62	79
208639.81	79730.43	79
208660.56	79722.77	81
208654.81	79657.62	80
208644.03	79637.52	80
208622.2	79630.79	81
208598.53	79607.44	82
208586.5	79572.95	76
208570.11	79544.73	81
208883.41	80202.94	78
208892.69	80185.05	77
208900.2	80162.36	77
208877.62	80158.38	89
208859.95	80171.56	78
208861.5	80194.77	77
208844.42	80208.7	81
208760.92	80178.73	81
208786.22	80166.52	66
208806.69	80154.48	78
208832.69	80191.2	77
208828.55	80170.04	73
208828.25	80143.83	83
208847.91	80130.57	84
208880.38	80126.02	85
208895.97	80103.84	90
208838.41	80063.32	90
208845.7	80036.12	89
208816.34	80040.95	89
208811.12	80092.55	89
208834.25	80089.68	97
208865.25	80088.12	91
208866.66	80108.53	82
208815.39	80124.22	80
208812.91	80066.61	93
208788.36	80072.98	79
208778.52	80044.4	79
208827.47	80019.45	87
208856.39	80011.3	89
208793.69	80023.17	87
208768.42	80025.48	82
208754.47	80005.09	81
208781.89	79995.41	77
208815.17	80001.65	81
208801.88	79985.55	81
208801.83	79962.83	76
208807.94	79943.53	83
208849.56	79966.88	91
208833.3	79883.79	90
208826.11	79861.28	81
208784.28	79883.62	79
208767.84	79895.25	81
208763.66	79867.9	79
208790.64	79863.55	77
208788.75	79840.84	77
208795.61	79820.47	93
208821.56	79831.98	92
208843.12	79832.97	90
208841.92	79807.84	92
208830	79788.62	88
208800.61	79794.22	86
208775.23	79725.01	86
208806.84	79738.85	82
208788.94	79751.74	83
208808.83	79771.66	81
208776.28	79775.73	79
208756.28	79776.08	86
208723.59	79772.41	78
208702.05	79758.95	76
208736.55	79756.23	80
208769.31	79745.5	93
208733	79735.73	95
208704.77	79733.91	86
208696.66	79713.89	85
208752.53	79727.55	89
208757.95	79707.73	87
208735.48	79694.84	88
208735.53	79666.81	91
208774.48	79664.57	91
208760.34	79650.25	90
208723.92	79649.16	89
208740.84	79634.43	91
208743.36	79607.02	91
208728.44	79576.81	92
208721.72	79603.52	91
208709.92	79631.66	86
208719.92	79709.92	89
208709.11	79676.91	77
208699.17	79649.93	88
208688.94	79684.1	86
208678.12	79705.51	82
208676.22	79665.16	78
208688.41	79629.06	75
208667.41	79613.59	77
208656.52	79563.91	88
208670.47	79581.66	87
208688.11	79603.96	90
208705.84	79590.12	92
208691.88	79572.46	90
208686.75	79551.48	91
208693.23	79514.67	91
208666.53	79523.59	92
208640.81	79547.95	84
208633.97	79520.73	89
208674.55	79500.11	88
208647.27	79494.67	94
208642.61	79470.63	93
208620.38	79493.49	92
208614.62	79443.02	78
208596.11	79473.1	79
208610.7	79537.04	85
208601.61	79517.54	81
208616.02	79592.82	78
208606.8	79574.6	78
208645.14	79584.94	76
208862.5	80058.1	91
208894.23	80227.51	93
208900.02	80257.32	91
208903.91	80281.76	91
208906.53	80302.12	91
208912.16	80340.64	89
208916.27	80361.44	90
208919.55	80390.11	90
208926.58	80427.65	89
208930.09	80449.08	90
208935.91	80495.52	89
208941.03	80518.12	89
208942.36	80538.85	90
208858.38	80590.07	78
208886.41	80586.47	78
208907.36	80577.71	77
208930.55	80571.52	77
208848.55	79932.82	93
208870.19	79925.36	92
208844.62	79912.11	92
